1.6512577072230483	0.1025374078080775	448.23591909324955	386.99003592798755
1.6512577072230483	-0.1025374078080775	448.23591909324955	386.99003592798755
1.6800577072230483	0.13579278331339995	667.9811032517453	427.49405160073934
1.6800577072230483	-0.13579278331339995	667.9811032517453	427.49405160073934
1.6848577072230484	0.049883063257983654	667.6736081437591	427.4373732861685
1.6848577072230484	-0.049883063257983654	667.6736081437591	427.4373732861685
1.6848577072230484	0.055425625842204056	666.777324918072	427.2721679827646
1.6848577072230484	-0.055425625842204056	666.777324918072	427.2721679827646
1.6512577072230483	0.0969948452238571	448.23591909324955	386.99003592798755
1.6512577072230483	-0.0969948452238571	448.23591909324955	386.99003592798755
1.6848577072230484	0.06096818842642446	665.7868031698374	427.08959238472204
1.6848577072230484	-0.06096818842642446	665.7868031698374	427.08959238472204
1.6800577072230483	0.14133534589762034	665.6225776751182	427.0593219055876
1.6800577072230483	-0.14133534589762034	665.6225776751182	427.0593219055876
1.6512577072230483	0.09145228263963669	448.23591909324955	386.99003592798755
1.6512577072230483	-0.09145228263963669	448.23591909324955	386.99003592798755
1.6848577072230484	0.06651075101064487	664.7020749791902	426.8896524051366
1.6848577072230484	-0.06651075101064487	664.7020749791902	426.8896524051366
1.6848577072230484	0.07205331359486528	663.5231754606291	426.67235451640585
1.6848577072230484	-0.07205331359486528	663.5231754606291	426.67235451640585
1.6512577072230483	0.08590972005541628	448.23591909324955	386.99003592798755
1.6512577072230483	-0.08590972005541628	448.23591909324955	386.99003592798755
1.6800577072230483	0.14687790848184076	663.1703869418673	426.6073276001263
1.6800577072230483	-0.14687790848184076	663.1703869418673	426.6073276001263
1.6848577072230484	0.07759587617908567	662.2501427573632	426.4377057491873
1.6848577072230484	-0.07759587617908567	662.2501427573632	426.4377057491873
1.6512577072230483	0.08036715747119587	448.23591909324955	386.99003592798755
1.6512577072230483	-0.08036715747119587	448.23591909324955	386.99003592798755
1.6848577072230484	0.08313843876330608	660.8830180351417	426.18571369126107
1.6848577072230484	-0.08313843876330608	660.8830180351417	426.18571369126107
1.6512577072230483	0.07482459488697547	448.23591909324955	386.99003592798755
1.6512577072230483	-0.07482459488697547	448.23591909324955	386.99003592798755
1.6848577072230484	0.08868100134752649	659.4218454756149	425.91638648630635
1.6848577072230484	-0.08868100134752649	659.4218454756149	425.91638648630635
1.6512577072230483	0.06928203230275506	448.23591909324955	386.99003592798755
1.6512577072230483	-0.06928203230275506	448.23591909324955	386.99003592798755
1.6512577072230483	0.06373946971853466	448.23591909324955	386.99003592798755
1.6512577072230483	-0.06373946971853466	448.23591909324955	386.99003592798755
1.6848577072230484	0.0942235639317469	657.8666722692235	425.62973283259043
1.6848577072230484	-0.0942235639317469	657.8666722692235	425.62973283259043
1.6512577072230483	0.05819690713431426	448.23591909324955	386.99003592798755
1.6512577072230483	-0.05819690713431426	448.23591909324955	386.99003592798755
1.6464577072230484	0.13856406460551013	448.23591909324955	386.99003592798755
1.6464577072230484	-0.13856406460551013	448.23591909324955	386.99003592798755
1.6848577072230484	0.09976612651596731	656.2175486076092	425.3257619815698
1.6848577072230484	-0.09976612651596731	656.2175486076092	425.3257619815698
1.6512577072230483	0.05265434455009386	448.23591909324955	386.99003592798755
1.6512577072230483	-0.05265434455009386	448.23591909324955	386.99003592798755
1.6512577072230483	0.04711178196587345	448.23591909324955	386.99003592798755
1.6512577072230483	-0.04711178196587345	448.23591909324955	386.99003592798755
1.6464577072230484	0.13302150202128973	448.23591909324955	386.99003592798755
1.6464577072230484	-0.13302150202128973	448.23591909324955	386.99003592798755
1.6848577072230484	0.1053086891001877	654.47452767553	425.0044837364004
1.6848577072230484	-0.1053086891001877	654.47452767553	425.0044837364004
1.6512577072230483	0.04156921938165304	448.23591909324955	386.99003592798755
1.6512577072230483	-0.04156921938165304	448.23591909324955	386.99003592798755
1.6512577072230483	0.03602665679743264	448.23591909324955	386.99003592798755
1.6512577072230483	-0.03602665679743264	448.23591909324955	386.99003592798755
1.6512577072230483	0.03048409421321223	448.23591909324955	386.99003592798755
1.6512577072230483	-0.03048409421321223	448.23591909324955	386.99003592798755
1.6512577072230483	0.024941531628991827	448.23591909324955	386.99003592798755
1.6512577072230483	-0.024941531628991827	448.23591909324955	386.99003592798755
1.6848577072230484	0.11085125168440811	652.6376656423397	424.6659084503666
1.6848577072230484	-0.11085125168440811	652.6376656423397	424.6659084503666
1.6464577072230484	0.12747893943706934	448.23591909324955	386.99003592798755
1.6464577072230484	-0.12747893943706934	448.23591909324955	386.99003592798755
1.6512577072230483	0.019398969044771418	448.23591909324955	386.99003592798755
1.6512577072230483	-0.019398969044771418	448.23591909324955	386.99003592798755
1.6512577072230483	0.013856406460551014	448.23591909324955	386.99003592798755
1.6512577072230483	-0.013856406460551014	448.23591909324955	386.99003592798755
1.6512577072230483	0.008313843876330608	448.23591909324955	386.99003592798755
1.6512577072230483	-0.008313843876330608	448.23591909324955	386.99003592798755
1.6512577072230483	0.002771281292110203	448.23591909324955	386.99003592798755
1.6512577072230483	-0.002771281292110203	448.23591909324955	386.99003592798755
1.6848577072230484	0.11639381426862852	650.7070216529789	424.31004702522074
1.6848577072230484	-0.11639381426862852	650.7070216529789	424.31004702522074
1.6464577072230484	0.12193637685284892	448.23591909324955	386.99003592798755
1.6464577072230484	-0.12193637685284892	448.23591909324955	386.99003592798755
1.6848577072230484	0.12193637685284892	648.6826578184962	423.9369109094363
1.6848577072230484	-0.12193637685284892	648.6826578184962	423.9369109094363
1.6464577072230484	0.11639381426862852	448.23591909324955	386.99003592798755
1.6464577072230484	-0.11639381426862852	448.23591909324955	386.99003592798755
1.6896577072230485	0.002771281292110203	646.6343828754996	423.55936743465685
1.6896577072230485	-0.002771281292110203	646.6343828754996	423.55936743465685
1.6848577072230484	0.12747893943706934	646.5646392061315	423.5465120963796
1.6848577072230484	-0.12747893943706934	646.5646392061315	423.5465120963796
1.6896577072230485	0.008313843876330608	646.5402598672943	423.5420184319285
1.6896577072230485	-0.008313843876330608	646.5402598672943	423.5420184319285
1.6896577072230485	0.013856406460551014	646.3520168891366	423.5073209864906
1.6896577072230485	-0.013856406460551014	646.3520168891366	423.5073209864906
1.6464577072230484	0.11085125168440811	448.23591909324955	386.99003592798755
1.6464577072230484	-0.11085125168440811	448.23591909324955	386.99003592798755
1.6896577072230485	0.019398969044771418	646.0696600170284	423.4552762182879
1.6896577072230485	-0.019398969044771418	646.0696600170284	423.4552762182879
1.6896577072230485	0.024941531628991827	645.6931983637553	423.3858858070133
1.6896577072230485	-0.024941531628991827	645.6931983637553	423.3858858070133
1.6896577072230485	0.03048409421321223	645.2226440774105	423.29915199183563
1.6896577072230485	-0.03048409421321223	645.2226440774105	423.29915199183563
1.6896577072230485	0.03602665679743264	644.6580123394272	423.1950775710369
1.6896577072230485	-0.03602665679743264	644.6580123394272	423.1950775710369
1.6848577072230484	0.13302150202128973	644.353033828914	423.13886312239276
1.6848577072230484	-0.13302150202128973	644.353033828914	423.13886312239276
1.6464577072230484	0.1053086891001877	448.23591909324955	386.99003592798755
1.6464577072230484	-0.1053086891001877	448.23591909324955	386.99003592798755
1.6896577072230485	0.04156921938165304	643.9993213621494	423.07366590156477
1.6896577072230485	-0.04156921938165304	643.9993213621494	423.07366590156477
1.6896577072230485	0.04711178196587345	643.246592385877	422.9349208984875
1.6896577072230485	-0.04711178196587345	643.246592385877	422.9349208984875
1.6464577072230484	0.09976612651596731	448.23591909324955	386.99003592798755
1.6464577072230484	-0.09976612651596731	448.23591909324955	386.99003592798755
1.6896577072230485	0.05265434455009386	642.3998496754582	422.77884703436655
1.6896577072230485	-0.05265434455009386	642.3998496754582	422.77884703436655
1.6848577072230484	0.13856406460551013	642.0479126348444	422.7139770647996
1.6848577072230484	-0.13856406460551013	642.0479126348444	422.7139770647996
1.6896577072230485	0.05819690713431426	641.4591205163695	422.6054493385332
1.6896577072230485	-0.05819690713431426	641.4591205163695	422.6054493385332
1.6464577072230484	0.0942235639317469	448.23591909324955	386.99003592798755
1.6464577072230484	-0.0942235639317469	448.23591909324955	386.99003592798755
1.6896577072230485	0.06373946971853466	640.4244352103362	422.41473339628214
1.6896577072230485	-0.06373946971853466	640.4244352103362	422.41473339628214
1.6848577072230484	0.14410662718973055	639.6493494955782	422.27186753981977
1.6848577072230484	-0.14410662718973055	639.6493494955782	422.27186753981977
1.6896577072230485	0.06928203230275506	639.2958270704528	422.20670534797114
1.6896577072230485	-0.06928203230275506	639.2958270704528	422.20670534797114
1.6464577072230484	0.08868100134752649	448.23591909324955	386.99003592798755
1.6464577072230484	-0.08868100134752649	448.23591909324955	386.99003592798755
1.6896577072230485	0.07482459488697547	638.0733324158289	421.98137188803497
1.6896577072230485	-0.07482459488697547	638.0733324158289	421.98137188803497
1.6464577072230484	0.08313843876330608	448.23591909324955	386.99003592798755
1.6464577072230484	-0.08313843876330608	448.23591909324955	386.99003592798755
1.6896577072230485	0.08036715747119587	636.7569905657649	421.73874026391144
1.6896577072230485	-0.08036715747119587	636.7569905657649	421.73874026391144
1.6464577072230484	0.07759587617908567	448.23591909324955	386.99003592798755
1.6464577072230484	-0.07759587617908567	448.23591909324955	386.99003592798755
1.6896577072230485	0.08590972005541628	635.7919460664332	421.5608607000178
1.6896577072230485	-0.08590972005541628	635.7919460664332	421.5608607000178
1.6464577072230484	0.07205331359486528	448.23591909324955	386.99003592798755
1.6464577072230484	-0.07205331359486528	448.23591909324955	386.99003592798755
1.6896577072230485	0.09145228263963669	634.8107025285938	421.37999528634504
1.6896577072230485	-0.09145228263963669	634.8107025285938	421.37999528634504
1.6464577072230484	0.06651075101064487	448.23591909324955	386.99003592798755
1.6464577072230484	-0.06651075101064487	448.23591909324955	386.99003592798755
1.6416577072230485	0.14133534589762034	448.23591909324955	386.99003592798755
1.6416577072230485	-0.14133534589762034	448.23591909324955	386.99003592798755
1.6464577072230484	0.06096818842642446	448.23591909324955	386.99003592798755
1.6464577072230484	-0.06096818842642446	448.23591909324955	386.99003592798755
1.6896577072230485	0.0969948452238571	633.7683158141442	421.1878598000507
1.6896577072230485	-0.0969948452238571	633.7683158141442	421.1878598000507
1.6464577072230484	0.055425625842204056	448.23591909324955	386.99003592798755
1.6464577072230484	-0.055425625842204056	448.23591909324955	386.99003592798755
1.6416577072230485	0.13579278331339995	448.23591909324955	386.99003592798755
1.6416577072230485	-0.13579278331339995	448.23591909324955	386.99003592798755
1.6464577072230484	0.049883063257983654	448.23591909324955	386.99003592798755
1.6464577072230484	-0.049883063257983654	448.23591909324955	386.99003592798755
1.6896577072230485	0.1025374078080775	632.6648193632839	420.98446040492115
1.6896577072230485	-0.1025374078080775	632.6648193632839	420.98446040492115
1.6464577072230484	0.044340500673763245	448.23591909324955	386.99003592798755
1.6464577072230484	-0.044340500673763245	448.23591909324955	386.99003592798755
1.6464577072230484	0.038797938089542836	448.23591909324955	386.99003592798755
1.6464577072230484	-0.038797938089542836	448.23591909324955	386.99003592798755
1.6896577072230485	0.1080799703922979	631.5002485500765	420.7698036211977
1.6896577072230485	-0.1080799703922979	631.5002485500765	420.7698036211977
1.6416577072230485	0.13025022072917955	448.23591909324955	386.99003592798755
1.6416577072230485	-0.13025022072917955	448.23591909324955	386.99003592798755
1.6464577072230484	0.03325537550532243	448.23591909324955	386.99003592798755
1.6464577072230484	-0.03325537550532243	448.23591909324955	386.99003592798755
1.6464577072230484	0.027712812921102028	448.23591909324955	386.99003592798755
1.6464577072230484	-0.027712812921102028	448.23591909324955	386.99003592798755
1.6464577072230484	0.022170250336881622	448.23591909324955	386.99003592798755
1.6464577072230484	-0.022170250336881622	448.23591909324955	386.99003592798755
1.6464577072230484	0.016627687752661217	448.23591909324955	386.99003592798755
1.6464577072230484	-0.016627687752661217	448.23591909324955	386.99003592798755
1.6464577072230484	0.011085125168440811	448.23591909324955	386.99003592798755
1.6464577072230484	-0.011085125168440811	448.23591909324955	386.99003592798755
1.6464577072230484	0.005542562584220406	448.23591909324955	386.99003592798755
1.6464577072230484	-0.005542562584220406	448.23591909324955	386.99003592798755
1.6896577072230485	0.11362253297651831	630.2746406768008	420.54389632453535
1.6896577072230485	-0.11362253297651831	630.2746406768008	420.54389632453535
1.6464577072230484	0.0	448.23591909324955	386.99003592798755
1.6416577072230485	0.12470765814495911	448.23591909324955	386.99003592798755
1.6416577072230485	-0.12470765814495911	448.23591909324955	386.99003592798755
1.6896577072230485	0.11916509556073872	628.9880349680077	420.3067457449076
1.6896577072230485	-0.11916509556073872	628.9880349680077	420.3067457449076
1.6416577072230485	0.11916509556073872	448.23591909324955	386.99003592798755
1.6416577072230485	-0.11916509556073872	448.23591909324955	386.99003592798755
1.6896577072230485	0.12470765814495911	627.6404725642863	420.0583594654568
1.6896577072230485	-0.12470765814495911	627.6404725642863	420.0583594654568
1.6416577072230485	0.11362253297651831	448.23591909324955	386.99003592798755
1.6416577072230485	-0.11362253297651831	448.23591909324955	386.99003592798755
1.6944577072230484	0.0	626.9509485867995	419.9312645755378
1.6944577072230484	0.005542562584220406	626.9203295454506	419.925620792556
1.6944577072230484	-0.005542562584220406	626.9203295454506	419.925620792556
1.6944577072230484	0.011085125168440811	626.8284734041983	419.90868962476196
1.6944577072230484	-0.011085125168440811	626.8284734041983	419.90868962476196
1.6944577072230484	0.016627687752661217	626.6753831112635	419.88047161557955
1.6944577072230484	-0.016627687752661217	626.6753831112635	419.88047161557955
1.6944577072230484	0.022170250336881622	626.4610635798256	419.840967670619
1.6944577072230484	-0.022170250336881622	626.4610635798256	419.840967670619
1.6896577072230485	0.13025022072917955	626.2319965157183	419.7987454212886
1.6896577072230485	-0.13025022072917955	626.2319965157183	419.7987454212886
1.6944577072230484	0.027712812921102028	626.1855216872252	419.79017905753005
1.6944577072230484	-0.027712812921102028	626.1855216872252	419.79017905753005
1.6416577072230485	0.1080799703922979	448.23591909324955	386.99003592798755
1.6416577072230485	-0.1080799703922979	448.23591909324955	386.99003592798755
1.6944577072230484	0.03325537550532243	625.8487662738751	419.72810740580104
1.6944577072230484	-0.03325537550532243	625.8487662738751	419.72810740580104
1.6944577072230484	0.038797938089542836	625.4508081418282	419.654754706495
1.6944577072230484	-0.038797938089542836	625.4508081418282	419.654754706495
1.6944577072230484	0.044340500673763245	624.9916600530544	419.57012331193215
1.6944577072230484	-0.044340500673763245	624.9916600530544	419.57012331193215
1.6416577072230485	0.1025374078080775	448.23591909324955	386.99003592798755
1.6416577072230485	-0.1025374078080775	448.23591909324955	386.99003592798755
1.6896577072230485	0.13579278331339995	624.7626517750562	419.52791189821335
1.6896577072230485	-0.13579278331339995	624.7626517750562	419.52791189821335
1.6944577072230484	0.049883063257983654	624.4713367273928	419.47421593531226
1.6944577072230484	-0.049883063257983654	624.4713367273928	419.47421593531226
1.6944577072230484	0.055425625842204056	623.889854840196	419.36703565028057
1.6944577072230484	-0.055425625842204056	623.889854840196	419.36703565028057
1.6416577072230485	0.0969948452238571	448.23591909324955	386.99003592798755
1.6416577072230485	-0.0969948452238571	448.23591909324955	386.99003592798755
1.6944577072230484	0.06096818842642446	623.2472330196558	419.248585890435
1.6944577072230484	-0.06096818842642446	623.2472330196558	419.248585890435
1.6896577072230485	0.14133534589762034	623.2324851906039	419.245867531435
1.6896577072230485	-0.14133534589762034	623.2324851906039	419.245867531435
1.6416577072230485	0.09145228263963669	448.23591909324955	386.99003592798755
1.6416577072230485	-0.09145228263963669	448.23591909324955	386.99003592798755
1.6944577072230484	0.06651075101064487	622.543491843833	419.1188704487781
1.6944577072230484	-0.06651075101064487	622.543491843833	419.1188704487781
1.6944577072230484	0.07205331359486528	621.7786538373587	418.9778934771098
1.6944577072230484	-0.07205331359486528	621.7786538373587	418.9778934771098
1.6896577072230485	0.14687790848184076	621.6415454988057	418.9526213041842
1.6896577072230485	-0.14687790848184076	621.6415454988057	418.9526213041842
1.6416577072230485	0.08590972005541628	448.23591909324955	386.99003592798755
1.6416577072230485	-0.08590972005541628	448.23591909324955	386.99003592798755
1.6944577072230484	0.07759587617908567	620.952743467836	418.8256594853637
1.6944577072230484	-0.07759587617908567	620.952743467836	418.8256594853637
1.6416577072230485	0.08036715747119587	448.23591909324955	386.99003592798755
1.6416577072230485	-0.08036715747119587	448.23591909324955	386.99003592798755
1.6944577072230484	0.08313843876330608	620.0657871419455	418.6621733408892
1.6944577072230484	-0.08313843876330608	620.0657871419455	418.6621733408892
1.6416577072230485	0.07482459488697547	448.23591909324955	386.99003592798755
1.6416577072230485	-0.07482459488697547	448.23591909324955	386.99003592798755
1.6944577072230484	0.08868100134752649	619.1178132012258	418.4874402676739
1.6944577072230484	-0.08868100134752649	619.1178132012258	418.4874402676739
1.6416577072230485	0.06928203230275506	448.23591909324955	386.99003592798755
1.6416577072230485	-0.06928203230275506	448.23591909324955	386.99003592798755
1.6416577072230485	0.06373946971853466	448.23591909324955	386.99003592798755
1.6416577072230485	-0.06373946971853466	448.23591909324955	386.99003592798755
1.6944577072230484	0.0942235639317469	618.1088519175612	418.3014658455119
1.6944577072230484	-0.0942235639317469	618.1088519175612	418.3014658455119
1.6368577072230484	0.13856406460551013	448.23591909324955	386.99003592798755
1.6368577072230484	-0.13856406460551013	448.23591909324955	386.99003592798755
1.6416577072230485	0.05819690713431426	448.23591909324955	386.99003592798755
1.6416577072230485	-0.05819690713431426	448.23591909324955	386.99003592798755
1.6944577072230484	0.09976612651596731	617.0389354883685	418.1042560091166
1.6944577072230484	-0.09976612651596731	617.0389354883685	418.1042560091166
1.6416577072230485	0.05265434455009386	448.23591909324955	386.99003592798755
1.6416577072230485	-0.05265434455009386	448.23591909324955	386.99003592798755
1.6416577072230485	0.04711178196587345	448.23591909324955	386.99003592798755
1.6416577072230485	-0.04711178196587345	448.23591909324955	386.99003592798755
1.6368577072230484	0.13302150202128973	448.23591909324955	386.99003592798755
1.6368577072230484	-0.13302150202128973	448.23591909324955	386.99003592798755
1.6944577072230484	0.1053086891001877	615.9080980314732	417.8958170471761
1.6944577072230484	-0.1053086891001877	615.9080980314732	417.8958170471761
1.6416577072230485	0.04156921938165304	448.23591909324955	386.99003592798755
1.6416577072230485	-0.04156921938165304	448.23591909324955	386.99003592798755
1.6416577072230485	0.03602665679743264	448.23591909324955	386.99003592798755
1.6416577072230485	-0.03602665679743264	448.23591909324955	386.99003592798755
1.6416577072230485	0.03048409421321223	448.23591909324955	386.99003592798755
1.6416577072230485	-0.03048409421321223	448.23591909324955	386.99003592798755
1.6944577072230484	0.11085125168440811	614.7163755796994	417.67615560135624
1.6944577072230484	-0.11085125168440811	614.7163755796994	417.67615560135624
1.6416577072230485	0.024941531628991827	448.23591909324955	386.99003592798755
1.6416577072230485	-0.024941531628991827	448.23591909324955	386.99003592798755
1.6368577072230484	0.12747893943706934	448.23591909324955	386.99003592798755
1.6368577072230484	-0.12747893943706934	448.23591909324955	386.99003592798755
1.6416577072230485	0.019398969044771418	448.23591909324955	386.99003592798755
1.6416577072230485	-0.019398969044771418	448.23591909324955	386.99003592798755
1.6416577072230485	0.013856406460551014	448.23591909324955	386.99003592798755
1.6416577072230485	-0.013856406460551014	448.23591909324955	386.99003592798755
1.6416577072230485	0.008313843876330608	448.23591909324955	386.99003592798755
1.6416577072230485	-0.008313843876330608	448.23591909324955	386.99003592798755
1.6416577072230485	0.002771281292110203	448.23591909324955	386.99003592798755
1.6416577072230485	-0.002771281292110203	448.23591909324955	386.99003592798755
1.6944577072230484	0.11639381426862852	613.4638060751561	417.44527866524714
1.6944577072230484	-0.11639381426862852	613.4638060751561	417.44527866524714
1.6368577072230484	0.12193637685284892	448.23591909324955	386.99003592798755
1.6368577072230484	-0.12193637685284892	448.23591909324955	386.99003592798755
1.6944577072230484	0.12193637685284892	612.150429363229	417.2031935832562
1.6944577072230484	-0.12193637685284892	612.150429363229	417.2031935832562
1.6368577072230484	0.11639381426862852	448.23591909324955	386.99003592798755
1.6368577072230484	-0.11639381426862852	448.23591909324955	386.99003592798755
1.6944577072230484	0.12747893943706934	610.7762871862813	416.9499080494466
1.6944577072230484	-0.12747893943706934	610.7762871862813	416.9499080494466
1.6992577072230484	0.002771281292110203	610.7299375031155	416.9413647528071
1.6992577072230484	-0.002771281292110203	610.7299375031155	416.9413647528071
1.6992577072230484	0.008313843876330608	610.668872646181	416.93010911627607
1.6992577072230484	-0.008313843876330608	610.668872646181	416.93010911627607
1.6992577072230484	0.013856406460551014	610.5467448812499	416.9075982024474
1.6992577072230484	-0.013856406460551014	610.5467448812499	416.9075982024474
1.6368577072230484	0.11085125168440811	448.23591909324955	386.99003592798755
1.6368577072230484	-0.11085125168440811	448.23591909324955	386.99003592798755
1.6992577072230484	0.019398969044771418	610.3635581058863	416.87383272973057
1.6992577072230484	-0.019398969044771418	610.3635581058863	416.87383272973057
1.6992577072230484	0.024941531628991827	610.1193181656611	416.8288137755966
1.6992577072230484	-0.024941531628991827	610.1193181656611	416.8288137755966
1.6992577072230484	0.03048409421321223	609.8140328532152	416.77254277640577
1.6992577072230484	-0.03048409421321223	609.8140328532152	416.77254277640577
1.6992577072230484	0.03602665679743264	609.4477119070209	416.70502152717916
1.6992577072230484	-0.03602665679743264	609.4477119070209	416.70502152717916
1.6944577072230484	0.13302150202128973	609.3414231770641	416.6854301063228
1.6944577072230484	-0.13302150202128973	609.3414231770641	416.6854301063228
1.6368577072230484	0.1053086891001877	448.23591909324955	386.99003592798755
1.6368577072230484	-0.1053086891001877	448.23591909324955	386.99003592798755
1.6992577072230484	0.04156921938165304	609.020367009826	416.6262521813119
1.6992577072230484	-0.04156921938165304	609.020367009826	416.6262521813119
1.6992577072230484	0.04711178196587345	608.5320117867961	416.53623725023056
1.6992577072230484	-0.04711178196587345	608.5320117867961	416.53623725023056
1.6368577072230484	0.09976612651596731	448.23591909324955	386.99003592798755
1.6368577072230484	-0.09976612651596731	448.23591909324955	386.99003592798755
1.6992577072230484	0.05265434455009386	607.9826618033378	416.4349796029923
1.6992577072230484	-0.05265434455009386	607.9826618033378	416.4349796029923
1.6944577072230484	0.13856406460551013	607.8458828518426	416.40976814356367
1.6944577072230484	-0.13856406460551013	607.8458828518426	416.40976814356367
1.6992577072230484	0.05819690713431426	607.372334562627	416.322482465829
1.6992577072230484	-0.05819690713431426	607.372334562627	416.322482465829
1.6368577072230484	0.0942235639317469	448.23591909324955	386.99003592798755
1.6368577072230484	-0.0942235639317469	448.23591909324955	386.99003592798755
1.6992577072230484	0.06373946971853466	606.7010495028187	416.19874942163295
1.6992577072230484	-0.06373946971853466	606.7010495028187	416.19874942163295
1.6944577072230484	0.14410662718973055	606.2897136032286	416.1229308967011
1.6944577072230484	-0.14410662718973055	606.2897136032286	416.1229308967011
1.6992577072230484	0.06928203230275506	605.9688279939608	416.063784409388
1.6992577072230484	-0.06928203230275506	605.9688279939608	416.063784409388
1.6368577072230484	0.08868100134752649	448.23591909324955	386.99003592798755
1.6368577072230484	-0.08868100134752649	448.23591909324955	386.99003592798755
1.6992577072230484	0.07482459488697547	605.1756933345921	415.9175917235429
1.6992577072230484	-0.07482459488697547	605.1756933345921	415.9175917235429
1.6368577072230484	0.08313843876330608	448.23591909324955	386.99003592798755
1.6368577072230484	-0.08313843876330608	448.23591909324955	386.99003592798755
1.6992577072230484	0.08036715747119587	604.3216707480522	415.7601760133303
1.6992577072230484	-0.08036715747119587	604.3216707480522	415.7601760133303
1.6368577072230484	0.07759587617908567	448.23591909324955	386.99003592798755
1.6368577072230484	-0.07759587617908567	448.23591909324955	386.99003592798755
1.6992577072230484	0.08590972005541628	603.4067873784713	415.5915422820285
1.6992577072230484	-0.08590972005541628	603.4067873784713	415.5915422820285
1.6368577072230484	0.07205331359486528	448.23591909324955	386.99003592798755
1.6368577072230484	-0.07205331359486528	448.23591909324955	386.99003592798755
1.6992577072230484	0.09145228263963669	602.4310722864736	415.41169588616896
1.6992577072230484	-0.09145228263963669	602.4310722864736	415.41169588616896
1.6368577072230484	0.06651075101064487	448.23591909324955	386.99003592798755
1.6368577072230484	-0.06651075101064487	448.23591909324955	386.99003592798755
1.6320577072230484	0.14133534589762034	448.23591909324955	386.99003592798755
1.6320577072230484	-0.14133534589762034	448.23591909324955	386.99003592798755
1.6368577072230484	0.06096818842642446	448.23591909324955	386.99003592798755
1.6368577072230484	-0.06096818842642446	448.23591909324955	386.99003592798755
1.6992577072230484	0.0969948452238571	601.3945564445787	415.22064253468847
1.6992577072230484	-0.0969948452238571	601.3945564445787	415.22064253468847
1.6368577072230484	0.055425625842204056	448.23591909324955	386.99003592798755
1.6368577072230484	-0.055425625842204056	448.23591909324955	386.99003592798755
1.6320577072230484	0.13579278331339995	448.23591909324955	386.99003592798755
1.6320577072230484	-0.13579278331339995	448.23591909324955	386.99003592798755
1.6368577072230484	0.049883063257983654	448.23591909324955	386.99003592798755
1.6368577072230484	-0.049883063257983654	448.23591909324955	386.99003592798755
1.6992577072230484	0.1025374078080775	600.2972727322988	415.0183882880262
1.6992577072230484	-0.1025374078080775	600.2972727322988	415.0183882880262
1.6368577072230484	0.044340500673763245	448.23591909324955	386.99003592798755
1.6368577072230484	-0.044340500673763245	448.23591909324955	386.99003592798755
1.6368577072230484	0.038797938089542836	448.23591909324955	386.99003592798755
1.6368577072230484	-0.038797938089542836	448.23591909324955	386.99003592798755
1.6320577072230484	0.13025022072917955	448.23591909324955	386.99003592798755
1.6320577072230484	-0.13025022072917955	448.23591909324955	386.99003592798755
1.6992577072230484	0.1080799703922979	599.139255930949	414.8049395571664
1.6992577072230484	-0.1080799703922979	599.139255930949	414.8049395571664
1.6368577072230484	0.03325537550532243	448.23591909324955	386.99003592798755
1.6368577072230484	-0.03325537550532243	448.23591909324955	386.99003592798755
1.6368577072230484	0.027712812921102028	448.23591909324955	386.99003592798755
1.6368577072230484	-0.027712812921102028	448.23591909324955	386.99003592798755
1.6368577072230484	0.022170250336881622	448.23591909324955	386.99003592798755
1.6368577072230484	-0.022170250336881622	448.23591909324955	386.99003592798755
1.6368577072230484	0.016627687752661217	448.23591909324955	386.99003592798755
1.6368577072230484	-0.016627687752661217	448.23591909324955	386.99003592798755
1.6368577072230484	0.011085125168440811	448.23591909324955	386.99003592798755
1.6368577072230484	-0.011085125168440811	448.23591909324955	386.99003592798755
1.6992577072230484	0.11362253297651831	597.9205427181571	414.58030310262683
1.6992577072230484	-0.11362253297651831	597.9205427181571	414.58030310262683
1.6368577072230484	0.005542562584220406	448.23591909324955	386.99003592798755
1.6368577072230484	-0.005542562584220406	448.23591909324955	386.99003592798755
1.6368577072230484	0.0	448.23591909324955	386.99003592798755
1.6320577072230484	0.12470765814495911	448.23591909324955	386.99003592798755
1.6320577072230484	-0.12470765814495911	448.23591909324955	386.99003592798755
1.6992577072230484	0.11916509556073872	596.6411716620885	414.3444860333941
1.6992577072230484	-0.11916509556073872	596.6411716620885	414.3444860333941
1.6320577072230484	0.11916509556073872	448.23591909324955	386.99003592798755
1.6320577072230484	-0.11916509556073872	448.23591909324955	386.99003592798755
1.6992577072230484	0.12470765814495911	595.3011832153777	414.0974958058051
1.6992577072230484	-0.12470765814495911	595.3011832153777	414.0974958058051
1.6320577072230484	0.11362253297651831	448.23591909324955	386.99003592798755
1.6320577072230484	-0.11362253297651831	448.23591909324955	386.99003592798755
1.7040577072230483	0.0	594.5241927250256	413.95427885604886
1.7040577072230483	0.005542562584220406	594.4937461785623	413.9486668677823
1.7040577072230483	-0.005542562584220406	594.4937461785623	413.9486668677823
1.7040577072230483	0.011085125168440811	594.4024075054474	413.931831081089
1.7040577072230483	-0.011085125168440811	594.4024075054474	413.931831081089
1.7040577072230483	0.016627687752661217	594.2501796043591	413.90377203026105
1.7040577072230483	-0.016627687752661217	594.2501796043591	413.90377203026105
1.7040577072230483	0.022170250336881622	594.0370673059149	413.86449060569055
1.7040577072230483	-0.022170250336881622	594.0370673059149	413.86449060569055
1.6992577072230484	0.13025022072917955	593.9006197087704	413.83934022237537
1.6992577072230484	-0.13025022072917955	593.9006197087704	413.83934022237537
1.7040577072230483	0.027712812921102028	593.7630773719072	413.81398805372925
1.7040577072230483	-0.027712812921102028	593.7630773719072	413.81398805372925
1.6320577072230484	0.1080799703922979	448.23591909324955	386.99003592798755
1.6320577072230484	-0.1080799703922979	448.23591909324955	386.99003592798755
1.7040577072230483	0.03325537550532243	593.4282184942274	413.7522659764894
1.7040577072230483	-0.03325537550532243	593.4282184942274	413.7522659764894
1.7040577072230483	0.038797938089542836	593.0325012934939	413.6793263315918
1.7040577072230483	-0.038797938089542836	593.0325012934939	413.6793263315918
1.7040577072230483	0.044340500673763245	592.5759383173624	413.59517143185354
1.7040577072230483	-0.044340500673763245	592.5759383173624	413.59517143185354
1.6320577072230484	0.1025374078080775	448.23591909324955	386.99003592798755
1.6320577072230484	-0.1025374078080775	448.23591909324955	386.99003592798755
1.6992577072230484	0.13579278331339995	592.4395253444875	413.57002743057564
1.6992577072230484	-0.13579278331339995	592.4395253444875	413.57002743057564
1.7040577072230483	0.049883063257983654	592.0585440385428	413.49980394492286
1.7040577072230483	-0.049883063257983654	592.0585440385428	413.49980394492286
1.7040577072230483	0.055425625842204056	591.4803348525004	413.39322689285564
1.7040577072230483	-0.055425625842204056	591.4803348525004	413.39322689285564
1.6320577072230484	0.0969948452238571	448.23591909324955	386.99003592798755
1.6320577072230484	-0.0969948452238571	448.23591909324955	386.99003592798755
1.6992577072230484	0.14133534589762034	590.9179461892988	413.2895659215551
1.6992577072230484	-0.14133534589762034	590.9179461892988	413.2895659215551
1.7040577072230483	0.06096818842642446	590.841329074871	413.27544365163834
1.7040577072230483	-0.06096818842642446	590.841329074871	413.27544365163834
1.6320577072230484	0.09145228263963669	448.23591909324955	386.99003592798755
1.6320577072230484	-0.09145228263963669	448.23591909324955	386.99003592798755
1.7040577072230483	0.06651075101064487	590.141546938554	413.1464579506527
1.7040577072230483	-0.06651075101064487	590.141546938554	413.1464579506527
1.7040577072230483	0.07205331359486528	589.3810105905211	413.00627387208743
1.7040577072230483	-0.07205331359486528	589.3810105905211	413.00627387208743
1.6992577072230484	0.14687790848184076	589.3359301673247	412.9979645288148
1.6992577072230484	-0.14687790848184076	589.3359301673247	412.9979645288148
1.6320577072230484	0.08590972005541628	448.23591909324955	386.99003592798755
1.6320577072230484	-0.08590972005541628	448.23591909324955	386.99003592798755
1.7040577072230483	0.07759587617908567	588.5597440883128	412.8548958502921
1.7040577072230483	-0.07759587617908567	588.5597440883128	412.8548958502921
1.6320577072230484	0.08036715747119587	448.23591909324955	386.99003592798755
1.6320577072230484	-0.08036715747119587	448.23591909324955	386.99003592798755
1.7040577072230483	0.08313843876330608	587.6777733962492	412.6923286710793
1.7040577072230483	-0.08313843876330608	587.6777733962492	412.6923286710793
1.6320577072230484	0.07482459488697547	448.23591909324955	386.99003592798755
1.6320577072230484	-0.07482459488697547	448.23591909324955	386.99003592798755
1.7040577072230483	0.08868100134752649	586.7351263813268	412.51857747096767
1.7040577072230483	-0.08868100134752649	586.7351263813268	412.51857747096767
1.6320577072230484	0.06928203230275506	448.23591909324955	386.99003592798755
1.6320577072230484	-0.06928203230275506	448.23591909324955	386.99003592798755
1.6320577072230484	0.06373946971853466	448.23591909324955	386.99003592798755
1.6320577072230484	-0.06373946971853466	448.23591909324955	386.99003592798755
1.7040577072230483	0.0942235639317469	585.7318328088402	412.3336477363753
1.7040577072230483	-0.0942235639317469	585.7318328088402	412.3336477363753
1.6272577072230483	0.13856406460551013	448.23591909324955	386.99003592798755
1.6272577072230483	-0.13856406460551013	448.23591909324955	386.99003592798755
1.6320577072230484	0.05819690713431426	448.23591909324955	386.99003592798755
1.6320577072230484	-0.05819690713431426	448.23591909324955	386.99003592798755
1.7040577072230483	0.09976612651596731	584.6679243376891	412.13754530275486
1.7040577072230483	-0.09976612651596731	584.6679243376891	412.13754530275486
1.6320577072230484	0.05265434455009386	448.23591909324955	386.99003592798755
1.6320577072230484	-0.05265434455009386	448.23591909324955	386.99003592798755
1.6320577072230484	0.04711178196587345	448.23591909324955	386.99003592798755
1.6320577072230484	-0.04711178196587345	448.23591909324955	386.99003592798755
1.6272577072230483	0.13302150202128973	448.23591909324955	386.99003592798755
1.6272577072230483	-0.13302150202128973	448.23591909324955	386.99003592798755
1.7040577072230483	0.1053086891001877	583.5434345154097	411.93027635367696
1.7040577072230483	-0.1053086891001877	583.5434345154097	411.93027635367696
1.6320577072230484	0.04156921938165304	448.23591909324955	386.99003592798755
1.6320577072230484	-0.04156921938165304	448.23591909324955	386.99003592798755
1.6320577072230484	0.03602665679743264	448.23591909324955	386.99003592798755
1.6320577072230484	-0.03602665679743264	448.23591909324955	386.99003592798755
1.6320577072230484	0.03048409421321223	448.23591909324955	386.99003592798755
1.6320577072230484	-0.03048409421321223	448.23591909324955	386.99003592798755
1.7040577072230483	0.11085125168440811	582.3583987729032	411.71184741985957
1.7040577072230483	-0.11085125168440811	582.3583987729032	411.71184741985957
1.6320577072230484	0.024941531628991827	448.23591909324955	386.99003592798755
1.6320577072230484	-0.024941531628991827	448.23591909324955	386.99003592798755
1.6272577072230483	0.12747893943706934	448.23591909324955	386.99003592798755
1.6272577072230483	-0.12747893943706934	448.23591909324955	386.99003592798755
1.6320577072230484	0.019398969044771418	448.23591909324955	386.99003592798755
1.6320577072230484	-0.019398969044771418	448.23591909324955	386.99003592798755
1.6320577072230484	0.013856406460551014	448.23591909324955	386.99003592798755
1.6320577072230484	-0.013856406460551014	448.23591909324955	386.99003592798755
1.6320577072230484	0.008313843876330608	448.23591909324955	386.99003592798755
1.6320577072230484	-0.008313843876330608	448.23591909324955	386.99003592798755
1.6320577072230484	0.002771281292110203	448.23591909324955	386.99003592798755
1.6320577072230484	-0.002771281292110203	448.23591909324955	386.99003592798755
1.7040577072230483	0.11639381426862852	581.1128544188844	411.4822653781439
1.7040577072230483	-0.11639381426862852	581.1128544188844	411.4822653781439
1.6272577072230483	0.12193637685284892	448.23591909324955	386.99003592798755
1.6272577072230483	-0.12193637685284892	448.23591909324955	386.99003592798755
1.7040577072230483	0.12193637685284892	579.8068406340396	411.24153745041815
1.7040577072230483	-0.12193637685284892	579.8068406340396	411.24153745041815
1.6272577072230483	0.11639381426862852	448.23591909324955	386.99003592798755
1.6272577072230483	-0.11639381426862852	448.23591909324955	386.99003592798755
1.7040577072230483	0.12747893943706934	578.4403984649036	410.9896712024886
1.7040577072230483	-0.12747893943706934	578.4403984649036	410.9896712024886
1.7088577072230484	0.002771281292110203	578.3032245227175	410.9643869373272
1.7088577072230484	-0.002771281292110203	578.3032245227175	410.9643869373272
1.7088577072230484	0.008313843876330608	578.242502710669	410.9531945317402
1.7088577072230484	-0.008313843876330608	578.242502710669	410.9531945317402
1.6272577072230483	0.11085125168440811	448.23591909324955	386.99003592798755
1.6272577072230483	-0.11085125168440811	448.23591909324955	386.99003592798755
1.7088577072230484	0.013856406460551014	578.1210610028463	410.930810073779
1.7088577072230484	-0.013856406460551014	578.1210610028463	410.930810073779
1.7088577072230484	0.019398969044771418	577.9389032315041	410.89723426981493
1.7088577072230484	-0.019398969044771418	577.9389032315041	410.89723426981493
1.7088577072230484	0.024941531628991827	577.6960351442624	410.8524681792645
1.7088577072230484	-0.024941531628991827	577.6960351442624	410.8524681792645
1.7088577072230484	0.03048409421321223	577.3924644032043	410.7965132144234
1.7088577072230484	-0.03048409421321223	577.3924644032043	410.7965132144234
1.7088577072230484	0.03602665679743264	577.0282005836718	410.7293711402438
1.7088577072230484	-0.03602665679743264	577.0282005836718	410.7293711402438
1.7040577072230483	0.13302150202128973	577.0135708174441	410.72667454289706
1.7040577072230483	-0.13302150202128973	577.0135708174441	410.72667454289706
1.6272577072230483	0.1053086891001877	448.23591909324955	386.99003592798755
1.6272577072230483	-0.1053086891001877	448.23591909324955	386.99003592798755
1.7088577072230484	0.04156921938165304	576.6032551727478	410.65104407405556
1.7088577072230484	-0.04156921938165304	576.6032551727478	410.65104407405556
1.7088577072230484	0.04711178196587345	576.117641567452	410.56153448523287
1.7088577072230484	-0.04711178196587345	576.117641567452	410.56153448523287
1.6272577072230483	0.09976612651596731	448.23591909324955	386.99003592798755
1.6272577072230483	-0.09976612651596731	448.23591909324955	386.99003592798755
1.7088577072230484	0.05265434455009386	575.5713750726311	410.4608451948056
1.7088577072230484	-0.05265434455009386	575.5713750726311	410.4608451948056
1.7040577072230483	0.13856406460551013	575.5264024503838	410.4525557216901
1.7040577072230483	-0.13856406460551013	575.5264024503838	410.4525557216901
1.7088577072230484	0.05819690713431426	574.9644728985447	410.3489793750146
1.7088577072230484	-0.05819690713431426	574.9644728985447	410.3489793750146
1.6272577072230483	0.0942235639317469	448.23591909324955	386.99003592798755
1.6272577072230483	-0.0942235639317469	448.23591909324955	386.99003592798755
1.7088577072230484	0.06373946971853466	574.2969541581608	410.22594054881273
1.7088577072230484	-0.06373946971853466	574.2969541581608	410.22594054881273
1.7040577072230483	0.14410662718973055	573.9789399682261	410.1673233291335
1.7040577072230483	-0.14410662718973055	573.9789399682261	410.1673233291335
1.7088577072230484	0.06928203230275506	573.5688398641489	410.09173258931116
1.7088577072230484	-0.06928203230275506	573.5688398641489	410.09173258931116
1.6272577072230483	0.08868100134752649	448.23591909324955	386.99003592798755
1.6272577072230483	-0.08868100134752649	448.23591909324955	386.99003592798755
1.7088577072230484	0.07482459488697547	572.7801529255801	409.9463597191706
1.7088577072230484	-0.07482459488697547	572.7801529255801	409.9463597191706
1.6272577072230483	0.08313843876330608	448.23591909324955	386.99003592798755
1.6272577072230483	-0.08313843876330608	448.23591909324955	386.99003592798755
1.7088577072230484	0.08036715747119587	571.9309181443289	409.78982650993845
1.7088577072230484	-0.08036715747119587	571.9309181443289	409.78982650993845
1.6272577072230483	0.07759587617908567	448.23591909324955	386.99003592798755
1.6272577072230483	-0.07759587617908567	448.23591909324955	386.99003592798755
1.7088577072230484	0.08590972005541628	571.021162211184	409.6221378813317
1.7088577072230484	-0.08590972005541628	571.021162211184	409.6221378813317
1.6272577072230483	0.07205331359486528	448.23591909324955	386.99003592798755
1.6272577072230483	-0.07205331359486528	448.23591909324955	386.99003592798755
1.7088577072230484	0.09145228263963669	570.050913701665	409.44329910046594
1.7088577072230484	-0.09145228263963669	570.050913701665	409.44329910046594
1.6272577072230483	0.06651075101064487	448.23591909324955	386.99003592798755
1.6272577072230483	-0.06651075101064487	448.23591909324955	386.99003592798755
1.6224577072230484	0.14133534589762034	448.23591909324955	386.99003592798755
1.6224577072230484	-0.14133534589762034	448.23591909324955	386.99003592798755
1.6272577072230483	0.06096818842642446	448.23591909324955	386.99003592798755
1.6272577072230483	-0.06096818842642446	448.23591909324955	386.99003592798755
1.7088577072230484	0.0969948452238571	569.0202030715507	409.2533157810312
1.7088577072230484	-0.0969948452238571	569.0202030715507	409.2533157810312
1.6272577072230483	0.055425625842204056	448.23591909324955	386.99003592798755
1.6272577072230483	-0.055425625842204056	448.23591909324955	386.99003592798755
1.6224577072230484	0.13579278331339995	448.23591909324955	386.99003592798755
1.6224577072230484	-0.13579278331339995	448.23591909324955	386.99003592798755
1.6272577072230483	0.049883063257983654	448.23591909324955	386.99003592798755
1.6272577072230483	-0.049883063257983654	448.23591909324955	386.99003592798755
1.7088577072230484	0.1025374078080775	567.9290626521113	409.0521938824131
1.7088577072230484	-0.1025374078080775	567.9290626521113	409.0521938824131
1.6272577072230483	0.044340500673763245	448.23591909324955	386.99003592798755
1.6272577072230483	-0.044340500673763245	448.23591909324955	386.99003592798755
1.6272577072230483	0.038797938089542836	448.23591909324955	386.99003592798755
1.6272577072230483	-0.038797938089542836	448.23591909324955	386.99003592798755
1.6224577072230484	0.13025022072917955	448.23591909324955	386.99003592798755
1.6224577072230484	-0.13025022072917955	448.23591909324955	386.99003592798755
1.7088577072230484	0.1080799703922979	566.7775266450669	408.8399397087634
1.7088577072230484	-0.1080799703922979	566.7775266450669	408.8399397087634
1.6272577072230483	0.03325537550532243	448.23591909324955	386.99003592798755
1.6272577072230483	-0.03325537550532243	448.23591909324955	386.99003592798755
1.6272577072230483	0.027712812921102028	448.23591909324955	386.99003592798755
1.6272577072230483	-0.027712812921102028	448.23591909324955	386.99003592798755
1.6272577072230483	0.022170250336881622	448.23591909324955	386.99003592798755
1.6272577072230483	-0.022170250336881622	448.23591909324955	386.99003592798755
1.6272577072230483	0.016627687752661217	448.23591909324955	386.99003592798755
1.6272577072230483	-0.016627687752661217	448.23591909324955	386.99003592798755
1.7088577072230484	0.11362253297651831	565.5656311172413	408.6165599080148
1.7088577072230484	-0.11362253297651831	565.5656311172413	408.6165599080148
1.6272577072230483	0.011085125168440811	448.23591909324955	386.99003592798755
1.6272577072230483	-0.011085125168440811	448.23591909324955	386.99003592798755
1.6272577072230483	0.005542562584220406	448.23591909324955	386.99003592798755
1.6272577072230483	-0.005542562584220406	448.23591909324955	386.99003592798755
1.6272577072230483	0.0	448.23591909324955	386.99003592798755
1.6224577072230484	0.12470765814495911	448.23591909324955	386.99003592798755
1.6224577072230484	-0.12470765814495911	448.23591909324955	386.99003592798755
1.7088577072230484	0.11916509556073872	564.2934139949523	408.3820614708469
1.7088577072230484	-0.11916509556073872	564.2934139949523	408.3820614708469
1.6224577072230484	0.11916509556073872	448.23591909324955	386.99003592798755
1.6224577072230484	-0.11916509556073872	448.23591909324955	386.99003592798755
1.7088577072230484	0.12470765814495911	562.9609150581052	408.13645172959747
1.7088577072230484	-0.12470765814495911	562.9609150581052	408.13645172959747
1.6224577072230484	0.11362253297651831	448.23591909324955	386.99003592798755
1.6224577072230484	-0.11362253297651831	448.23591909324955	386.99003592798755
1.7136577072230483	0.0	562.0974368632517	407.97729313656
1.7136577072230483	0.005542562584220406	562.0671608790374	407.9717125867799
1.7136577072230483	-0.005542562584220406	562.0671608790374	407.9717125867799
1.7136577072230483	0.011085125168440811	561.9763338765213	407.9549711125697
1.7136577072230483	-0.011085125168440811	561.9763338765213	407.9549711125697
1.7136577072230483	0.016627687752661217	561.8249587059424	407.9270692392928
1.7136577072230483	-0.016627687752661217	561.8249587059424	407.9270692392928
1.7136577072230483	0.022170250336881622	561.6130401171961	407.8880078424627
1.7136577072230483	-0.022170250336881622	561.6130401171961	407.8880078424627
1.7088577072230484	0.13025022072917955	561.5681759340134	407.8797383571234
1.7088577072230484	-0.13025022072917955	561.5681759340134	407.8797383571234
1.7136577072230483	0.027712812921102028	561.3405847590964	407.83778814760626
1.7136577072230483	-0.027712812921102028	561.3405847590964	407.83778814760626
1.6224577072230484	0.1080799703922979	448.23591909324955	386.99003592798755
1.6224577072230484	-0.1080799703922979	448.23591909324955	386.99003592798755
1.7136577072230483	0.03325537550532243	561.0076011783283	407.77641173007135
1.7136577072230483	-0.03325537550532243	561.0076011783283	407.77641173007135
